# .PCD v0.7 - Point Cloud Data file format
VERSION 0.7
FIELDS x y z
SIZE 4 4 4
TYPE F F F
COUNT 1 1 1
WIDTH 1501
HEIGHT 1
VIEWPOINT 0 0 0 0 1 0 0
POINTS 1501
DATA ascii
0.065843001 0.023221999 0.78204
0.066615999 0.023209 0.7816
0.067388996 0.023196001 0.78116
0.068199001 0.023196001 0.78116
0.068970002 0.023182999 0.78072
0.069701001 0.023157001 0.77983999
0.070469998 0.023143999 0.77941
0.071199 0.023118 0.77853
0.071924999 0.023092 0.77766001
0.072691001 0.023079 0.77723002
0.073455997 0.023065999 0.77679002
0.074220002 0.023053 0.77635998
0.075025 0.023053 0.77635998
0.075829998 0.023053 0.77635998
0.076549999 0.023027999 0.77548999
0.077353999 0.023027999 0.77548999
0.078114003 0.023015 0.77506
0.078873999 0.023002001 0.77463001
0.079632998 0.022988999 0.77419001
0.080390997 0.022976 0.77376002
0.081102997 0.022950999 0.77289999
0.081813 0.022925001 0.77204001
0.082521997 0.0229 0.77118999
0.083230004 0.022874 0.77033001
0.083981998 0.022862 0.76990998
0.084733002 0.022848999 0.76947999
0.013371 0.023047 0.74996001
0.014171 0.023085 0.75117999
0.014999 0.023159999 0.75362003
0.015814999 0.02321 0.75525999
0.016634 0.023260999 0.75691003
0.017465999 0.023324 0.75897002
0.018262999 0.023336999 0.75939
0.023114 0.023465 0.76356
0.023959 0.023517 0.76524001
0.024766 0.023530001 0.76565999
0.025588 0.023556 0.76651001
0.026441 0.023607999 0.76819998
0.027253 0.023621 0.76863003
0.028081 0.023646999 0.76947999
0.028895 0.02366 0.76990998
0.029726001 0.023685999 0.77076
0.030559 0.023713 0.77161998
0.031412002 0.023752 0.77289999
0.032249 0.023778999 0.77376002
0.033087999 0.023805 0.77463001
0.033911001 0.023819 0.77506
0.034752999 0.023845 0.77591997
0.035578001 0.023858 0.77635998
0.036382999 0.023858 0.77635998
0.037229002 0.023885 0.77723002
0.038077999 0.023912 0.77810001
0.038906001 0.023925001 0.77853
0.039735999 0.023939 0.77897
0.040612001 0.023979001 0.78027999
0.041444 0.023992 0.78072
0.042254001 0.023992 0.78072
0.043063998 0.023992 0.78072
0.043922 0.024018999 0.7816
0.044757999 0.024033001 0.78204
0.045568999 0.024033001 0.78204
0.046379998 0.024033001 0.78204
0.047191001 0.024033001 0.78204
0.048029002 0.024047 0.78248
0.048868001 0.02406 0.78292
0.049679998 0.02406 0.78292
0.050462998 0.024047 0.78248
0.051302999 0.02406 0.78292
0.052115001 0.02406 0.78292
0.052956998 0.024073999 0.78336
0.053739 0.02406 0.78292
0.054551002 0.02406 0.78292
0.055394001 0.024073999 0.78336
0.056205999 0.024073999 0.78336
0.056986 0.02406 0.78292
0.057797998 0.02406 0.78292
0.058642998 0.024073999 0.78336
0.059422001 0.02406 0.78292
0.060233999 0.02406 0.78292
0.061046001 0.02406 0.78292
0.061857 0.02406 0.78292
0.062669002 0.02406 0.78292
0.063445002 0.024047 0.78248
0.064221002 0.024033001 0.78204
0.065031998 0.024033001 0.78204
0.065880001 0.024047 0.78248
0.066652998 0.024033001 0.78204
0.067426004 0.024018999 0.7816
0.068199001 0.024006 0.78116
0.068970002 0.023992 0.78072
0.069739997 0.023979001 0.78027999
0.07051 0.023965999 0.77983999
0.071239002 0.023939 0.77897
0.071924999 0.023898 0.77766001
0.072732002 0.023898 0.77766001
0.073496997 0.023885 0.77723002
0.074261002 0.023871999 0.77679002
0.075025 0.023858 0.77635998
0.075829998 0.023858 0.77635998
0.076549999 0.023832001 0.77548999
0.077353999 0.023832001 0.77548999
0.078114003 0.023819 0.77506
0.078873999 0.023805 0.77463001
0.079632998 0.023792 0.77419001
0.080346003 0.023765 0.77332997
0.081102997 0.023752 0.77289999
0.081813 0.023726 0.77204001
0.082521997 0.023700001 0.77118999
0.083276004 0.023685999 0.77076
0.083981998 0.02366 0.76990998
0.084733002 0.023646999 0.76947999
0.085483998 0.023634 0.76905
0.086185999 0.023607999 0.76819998
0.086934 0.023595 0.76778001
0.013371 0.023824999 0.74996001
0.014187 0.023889 0.75199002
0.015007 0.023954 0.75402999
0.015814999 0.023993 0.75525999
0.016634 0.024046 0.75691003
0.017465999 0.024111001 0.75897002
0.023114 0.024257001 0.76356
0.023946 0.024297001 0.76481998
0.024766 0.024324 0.76565999
0.025588 0.024351001 0.76651001
0.026441 0.024404 0.76819998
0.027253 0.024418 0.76863003
0.028081 0.024444999 0.76947999
0.028911 0.024472 0.77033001
0.029743001 0.024498999 0.77118999
0.030593 0.02454 0.77247
0.031429 0.024567001 0.77332997
0.032267001 0.024595 0.77419001
0.033107001 0.024622001 0.77506
0.033929002 0.024636 0.77548999
0.034772001 0.024662999 0.77635998
0.035597 0.024676999 0.77679002
0.036403 0.024676999 0.77679002
0.037250001 0.024705 0.77766001
0.038120002 0.024746001 0.77897
0.038927998 0.024746001 0.77897
0.039758001 0.02476 0.77941
0.040635001 0.024801999 0.78072
0.041444 0.024801999 0.78072
0.042277999 0.024816001 0.78116
0.043088 0.024816001 0.78116
0.043922 0.02483 0.7816
0.044757999 0.024844 0.78204
0.045595001 0.024858 0.78248
0.046379998 0.024844 0.78204
0.047217999 0.024858 0.78248
0.048029002 0.024858 0.78248
0.048868001 0.024871999 0.78292
0.049679998 0.024871999 0.78292
0.050492 0.024871999 0.78292
0.051302999 0.024871999 0.78292
0.052145001 0.024886001 0.78336
0.052987002 0.024900001 0.78380001
0.053769 0.024886001 0.78336
0.054582 0.024886001 0.78336
0.055424999 0.024900001 0.78380001
0.056237999 0.024900001 0.78380001
0.057018001 0.024886001 0.78336
0.057831001 0.024886001 0.78336
0.058642998 0.024886001 0.78336
0.059455 0.024886001 0.78336
0.060268 0.024886001 0.78336
0.061046001 0.024871999 0.78292
0.061891999 0.024886001 0.78336
0.062705003 0.024886001 0.78336
0.063481003 0.024871999 0.78292
0.064257003 0.024858 0.78248
0.065067999 0.024858 0.78248
0.065917 0.024871999 0.78292
0.066690996 0.024858 0.78248
0.067464001 0.024844 0.78204
0.068236999 0.02483 0.7816
0.069008999 0.024816001 0.78116
0.069779001 0.024801999 0.78072
0.070548996 0.024788 0.78027999
0.071277998 0.02476 0.77941
0.071966 0.024719 0.77810001
0.072772004 0.024719 0.77810001
0.073537998 0.024705 0.77766001
0.074261002 0.024676999 0.77679002
0.075066999 0.024676999 0.77679002
0.075829998 0.024662999 0.77635998
0.076591998 0.02465 0.77591997
0.077353999 0.024636 0.77548999
0.078114003 0.024622001 0.77506
0.078918003 0.024622001 0.77506
0.079632998 0.024595 0.77419001
0.080390997 0.024581 0.77376002
0.081102997 0.024553999 0.77289999
0.081859 0.02454 0.77247
0.082567997 0.024513001 0.77161998
0.083276004 0.024486 0.77076
0.083981998 0.024459001 0.76990998
0.084733002 0.024444999 0.76947999
0.085483998 0.024431 0.76905
0.086185999 0.024404 0.76819998
0.086934 0.024390999 0.76778001
0.087682001 0.024377 0.76735002
0.013371 0.024603 0.74996001
0.014194 0.024683001 0.75239998
0.015015 0.02475 0.75444001
0.015822999 0.02479 0.75567001
0.016634 0.02483 0.75691003
0.023102 0.025034999 0.76314002
0.023946 0.02509 0.76481998
0.024766 0.025118001 0.76565999
0.025588 0.025145 0.76651001
0.026441 0.025201 0.76819998
0.027253 0.025215 0.76863003
0.028081 0.025242999 0.76947999
0.028911 0.025271 0.77033001
0.029758999 0.025312999 0.77161998
0.030610001 0.025355 0.77289999
0.031447001 0.025382999 0.77376002
0.032285001 0.025412001 0.77463001
0.033124998 0.02544 0.77548999
0.033948001 0.025454 0.77591997
0.034772001 0.025469 0.77635998
0.035597 0.025482999 0.77679002
0.036423001 0.025497001 0.77723002
0.037292 0.02554 0.77853
0.038141999 0.025568999 0.77941
0.03895 0.025568999 0.77941
0.039781 0.025583001 0.77983999
0.040658001 0.025626 0.78116
0.041467998 0.025626 0.78116
0.042300999 0.02564 0.7816
0.043088 0.025626 0.78116
0.043947 0.025655 0.78204
0.044783 0.025668999 0.78248
0.045595001 0.025668999 0.78248
0.046406001 0.025668999 0.78248
0.047217999 0.025668999 0.78248
0.048055999 0.025684001 0.78292
0.048895001 0.025698001 0.78336
0.049708001 0.025698001 0.78336
0.050519999 0.025698001 0.78336
0.051332001 0.025698001 0.78336
0.052173998 0.025713 0.78380001
0.052987002 0.025713 0.78380001
0.053769 0.025698001 0.78336
0.054612 0.025713 0.78380001
0.055424999 0.025713 0.78380001
0.056237999 0.025713 0.78380001
0.057050999 0.025713 0.78380001
0.057863001 0.025713 0.78380001
0.058676001 0.025713 0.78380001
0.059489001 0.025713 0.78380001
0.060302 0.025713 0.78380001
0.061080001 0.025698001 0.78336
0.061926998 0.025713 0.78380001
0.062739998 0.025713 0.78380001
0.063516997 0.025698001 0.78336
0.064292997 0.025684001 0.78292
0.065104999 0.025684001 0.78292
0.065954 0.025698001 0.78336
0.066729002 0.025684001 0.78292
0.067501999 0.025668999 0.78248
0.068274997 0.025655 0.78204
0.069046997 0.02564 0.7816
0.069819003 0.025626 0.78116
0.070629001 0.025626 0.78116
0.071359001 0.025597 0.78027999
0.072045997 0.025553999 0.77897
0.072812997 0.02554 0.77853
0.073578998 0.025526 0.77810001
0.074303001 0.025497001 0.77723002
0.075108998 0.025497001 0.77723002
0.075871997 0.025482999 0.77679002
0.076591998 0.025454 0.77591997
0.077353999 0.02544 0.77548999
0.078157999 0.02544 0.77548999
0.078918003 0.025426 0.77506
0.079677001 0.025412001 0.77463001
0.080390997 0.025382999 0.77376002
0.081147999 0.025369 0.77332997
0.081859 0.025341 0.77247
0.082567997 0.025312999 0.77161998
0.083276004 0.025285 0.77076
0.083981998 0.025257001 0.76990998
0.084733002 0.025242999 0.76947999
0.085483998 0.025229 0.76905
0.086185999 0.025201 0.76819998
0.086934 0.025187001 0.76778001
0.087682001 0.025172999 0.76735002
0.088380001 0.025145 0.76651001
0.089028001 0.025103999 0.76524001
0.012559 0.025312001 0.74794
0.014202 0.025477 0.75281
0.015015 0.025532 0.75444001
0.015814999 0.025560001 0.75525999
0.023932001 0.025869001 0.76440001
0.024766 0.025912 0.76565999
0.025574001 0.025926 0.76608998
0.026427001 0.025983 0.76778001
0.027253 0.026012 0.76863003
0.028081 0.026040999 0.76947999
0.028927 0.026084 0.77076
0.029758999 0.026113 0.77161998
0.030626999 0.026171001 0.77332997
0.031463999 0.0262 0.77419001
0.032303002 0.02623 0.77506
0.033144001 0.026258999 0.77591997
0.033967 0.026273999 0.77635998
0.034791999 0.026288001 0.77679002
0.035617001 0.026303001 0.77723002
0.036444001 0.026318001 0.77766001
0.037333999 0.026377 0.77941
0.038185 0.026405999 0.78027999
0.038993999 0.026405999 0.78027999
0.039825 0.026420999 0.78072
0.040681001 0.026450999 0.7816
0.041491002 0.026450999 0.7816
0.042325001 0.026466001 0.78204
0.043136001 0.026466001 0.78204
0.043947 0.026466001 0.78204
0.044808999 0.026496001 0.78292
0.045620002 0.026496001 0.78292
0.046432 0.026496001 0.78292
0.047244001 0.026496001 0.78292
0.048083 0.026511 0.78336
0.048923001 0.026525 0.78380001
0.049736001 0.026525 0.78380001
0.050547998 0.026525 0.78380001
0.051360998 0.026525 0.78380001
0.052203 0.02654 0.78424001
0.053017002 0.02654 0.78424001
0.053830002 0.02654 0.78424001
0.054643001 0.02654 0.78424001
0.055456001 0.02654 0.78424001
0.056301001 0.026555 0.78469002
0.057082999 0.02654 0.78424001
0.057895999 0.02654 0.78424001
0.058708999 0.02654 0.78424001
0.059556 0.026555 0.78469002
0.060336001 0.02654 0.78424001
0.061149001 0.02654 0.78424001
0.061962001 0.02654 0.78424001
0.062811002 0.026555 0.78469002
0.063588999 0.02654 0.78424001
0.064328998 0.026511 0.78336
0.065141998 0.026511 0.78336
0.065990999 0.026525 0.78380001
0.066766001 0.026511 0.78336
0.067539997 0.026496001 0.78292
0.068351999 0.026496001 0.78292
0.069124997 0.026481001 0.78248
0.069858 0.026450999 0.7816
0.070667997 0.026450999 0.7816
0.071399003 0.026420999 0.78072
0.072126999 0.026392 0.77983999
0.072894998 0.026377 0.77941
0.073620997 0.026347 0.77853
0.074345 0.026318001 0.77766001
0.075108998 0.026303001 0.77723002
0.075915001 0.026303001 0.77723002
0.076635003 0.026273999 0.77635998
0.077396996 0.026258999 0.77591997
0.078157999 0.026244 0.77548999
0.078918003 0.02623 0.77506
0.079677001 0.026215 0.77463001
0.080435999 0.0262 0.77419001
0.081147999 0.026171001 0.77332997
0.081904002 0.026156999 0.77289999
0.082567997 0.026113 0.77161998
0.083322003 0.026099 0.77118999
0.083981998 0.026055001 0.76990998
0.084733002 0.026040999 0.76947999
0.085483998 0.026025999 0.76905
0.086185999 0.025998 0.76819998
0.086934 0.025983 0.76778001
0.087682001 0.025969001 0.76735002
0.088380001 0.025939999 0.76651001
0.089028001 0.025897 0.76524001
0.012573 0.026116 0.74874997
0.013371 0.026157999 0.74996001
0.014194 0.026242999 0.75239998
0.023932001 0.026662 0.76440001
0.024766 0.026706001 0.76565999
0.025574001 0.02672 0.76608998
0.026441 0.026794 0.76819998
0.027268 0.026823999 0.76905
0.028097 0.026853999 0.76990998
0.028943 0.026898 0.77118999
0.029792 0.026943 0.77247
0.030644 0.026988 0.77376002
0.031482 0.027017999 0.77463001
0.032320999 0.027047999 0.77548999
0.033162002 0.027078999 0.77635998
0.034005001 0.027109001 0.77723002
0.034811001 0.027109001 0.77723002
0.035636999 0.027124001 0.77766001
0.036463998 0.027139001 0.77810001
0.037354998 0.0272 0.77983999
0.038185 0.027215 0.78027999
0.039016001 0.027231 0.78072
0.039848 0.027246 0.78116
0.040681001 0.027261 0.7816
0.041514002 0.027277 0.78204
0.042349 0.027292 0.78248
0.043161001 0.027292 0.78248
0.043972 0.027292 0.78248
0.044833999 0.027323 0.78336
0.045646001 0.027323 0.78336
0.046457998 0.027323 0.78336
0.047270998 0.027323 0.78336
0.048110001 0.027338 0.78380001
0.048951 0.027354 0.78424001
0.049764 0.027354 0.78424001
0.050577 0.027354 0.78424001
0.051419001 0.027369 0.78469002
0.052232999 0.027369 0.78469002
0.053077001 0.027385 0.78513002
0.053860001 0.027369 0.78469002
0.054674 0.027369 0.78469002
0.055519 0.027385 0.78513002
0.056333002 0.027385 0.78513002
0.057115 0.027369 0.78469002
0.057929002 0.027369 0.78469002
0.058742002 0.027369 0.78469002
0.059590001 0.027385 0.78513002
0.060369998 0.027369 0.78469002
0.061183002 0.027369 0.78469002
0.062031999 0.027385 0.78513002
0.062845998 0.027385 0.78513002
0.063625 0.027369 0.78469002
0.064401999 0.027354 0.78424001
0.065214999 0.027354 0.78424001
0.066027999 0.027354 0.78424001
0.066803999 0.027338 0.78380001
0.067579001 0.027323 0.78336
0.068391003 0.027323 0.78336
0.069164 0.027307 0.78292
0.069936998 0.027292 0.78248
0.070707999 0.027277 0.78204
0.071438998 0.027246 0.78116
0.072168 0.027215 0.78027999
0.072976999 0.027215 0.78027999
0.073702998 0.027185 0.77941
0.074386001 0.027139001 0.77810001
0.075193003 0.027139001 0.77810001
0.075957 0.027124001 0.77766001
0.076635003 0.027078999 0.77635998
0.077396996 0.027063999 0.77591997
0.078157999 0.027047999 0.77548999
0.078961998 0.027047999 0.77548999
0.079722002 0.027032999 0.77506
0.080435999 0.027003 0.77419001
0.081193 0.026988 0.77376002
0.081904002 0.026958 0.77289999
0.082613997 0.026928 0.77204001
0.083322003 0.026898 0.77118999
0.084027998 0.026868001 0.77033001
0.084733002 0.026838999 0.76947999
0.085483998 0.026823999 0.76905
0.086185999 0.026794 0.76819998
0.086934 0.026779 0.76778001
0.087682001 0.026765 0.76735002
0.088380001 0.026735 0.76651001
0.089028001 0.026691001 0.76524001
0.089722 0.026662 0.76440001
0.011777 0.026849 0.74754
0.012579 0.026907001 0.74914998
0.013363 0.026921 0.74956
0.023088999 0.027394 0.76271999
0.023932001 0.027454 0.76440001
0.024766 0.0275 0.76565999
0.025588 0.02753 0.76651001
0.026441 0.027590999 0.76819998
0.027268 0.027620999 0.76905
0.028112 0.027667001 0.77033001
0.028959 0.027713001 0.77161998
0.029809 0.027760001 0.77289999
0.030662 0.027806001 0.77419001
0.031498998 0.027837001 0.77506
0.032320999 0.027853001 0.77548999
0.033181001 0.027899001 0.77679002
0.034024 0.027930001 0.77766001
0.034830999 0.027930001 0.77766001
0.035657 0.027946001 0.77810001
0.036483999 0.027961999 0.77853
0.037354998 0.028008999 0.77983999
0.038206 0.028039999 0.78072
0.039016001 0.028039999 0.78072
0.039848 0.028055999 0.78116
0.040702999 0.028088 0.78204
0.041538 0.028103 0.78248
0.042373002 0.028119 0.78292
0.043161001 0.028103 0.78248
0.043997001 0.028119 0.78292
0.044859 0.028151 0.78380001
0.045671999 0.028151 0.78380001
0.046484999 0.028151 0.78380001
0.047297001 0.028151 0.78380001
0.048137002 0.028167 0.78424001
0.049006 0.028199 0.78513002
0.049819998 0.028199 0.78513002
0.050634 0.028199 0.78513002
0.051447999 0.028199 0.78513002
0.052292001 0.028215 0.78557003
0.053137001 0.028231001 0.78601998
0.053920999 0.028215 0.78557003
0.054736 0.028215 0.78557003
0.055550002 0.028215 0.78557003
0.056364998 0.028215 0.78557003
0.057179999 0.028215 0.78557003
0.057994001 0.028215 0.78557003
0.058809001 0.028215 0.78557003
0.059657 0.028231001 0.78601998
0.060438 0.028215 0.78557003
0.061218001 0.028199 0.78513002
0.062066998 0.028215 0.78557003
0.062917002 0.028231001 0.78601998
0.063695997 0.028215 0.78557003
0.064438 0.028183 0.78469002
0.065251999 0.028183 0.78469002
0.066065997 0.028183 0.78469002
0.066878997 0.028183 0.78469002
0.067616999 0.028151 0.78380001
0.068429001 0.028151 0.78380001
0.069202997 0.028135 0.78336
0.069976002 0.028119 0.78292
0.070748001 0.028103 0.78248
0.071479 0.028072 0.7816
0.072249003 0.028055999 0.78116
0.073018 0.028039999 0.78072
0.073743999 0.028008999 0.77983999
0.074469998 0.027977001 0.77897
0.075235002 0.027961999 0.77853
0.075999998 0.027946001 0.77810001
0.076678 0.027899001 0.77679002
0.077440001 0.027884001 0.77635998
0.078201003 0.027868001 0.77591997
0.079006001 0.027868001 0.77591997
0.079722002 0.027837001 0.77506
0.080435999 0.027806001 0.77419001
0.081193 0.027791001 0.77376002
0.081950001 0.027775001 0.77332997
0.082613997 0.027729001 0.77204001
0.083368003 0.027713001 0.77161998
0.084027998 0.027667001 0.77033001
0.08478 0.027651999 0.76990998
0.085483998 0.027620999 0.76905
0.086234003 0.027605999 0.76863003
0.086934 0.027575999 0.76778001
0.087682001 0.027559999 0.76735002
0.088380001 0.02753 0.76651001
0.089028001 0.027484 0.76524001
0.089672998 0.027439 0.76397997
0.01179 0.027654 0.74835002
0.023088999 0.028185001 0.76271999
0.023946 0.028262001 0.76481998
0.024766 0.028294001 0.76565999
0.025602 0.028340001 0.76692998
0.026456 0.028403001 0.76863003
0.027283 0.028434999 0.76947999
0.028143 0.028498 0.77118999
0.028991001 0.028545 0.77247
0.029826 0.028577 0.77332997
0.030679001 0.028625 0.77463001
0.031535 0.028673001 0.77591997
0.032357 0.028689001 0.77635998
0.033218 0.028736999 0.77766001
0.034063 0.028769 0.77853
0.034869999 0.028769 0.77853
0.035677001 0.028769 0.77853
0.036504999 0.028785 0.77897
0.037397001 0.02885 0.78072
0.038228001 0.028866 0.78116
0.039037999 0.028866 0.78116
0.039870001 0.028882001 0.7816
0.040725999 0.028914999 0.78248
0.041561 0.028930999 0.78292
0.042397 0.028946999 0.78336
0.043184999 0.028930999 0.78292
0.044020999 0.028946999 0.78336
0.044884 0.02898 0.78424001
0.045722999 0.028997 0.78469002
0.046510998 0.02898 0.78424001
0.047350999 0.028997 0.78469002
0.048165001 0.028997 0.78469002
0.049033999 0.029029001 0.78557003
0.049876001 0.029046001 0.78601998
0.050691001 0.029046001 0.78601998
0.051507 0.029046001 0.78601998
0.052351002 0.029061999 0.78645998
0.053167 0.029061999 0.78645998
0.053982001 0.029061999 0.78645998
0.054798 0.029061999 0.78645998
0.055645 0.029079 0.78691
0.056460999 0.029079 0.78691
0.057211999 0.029046001 0.78601998
0.058060002 0.029061999 0.78645998
0.058874998 0.029061999 0.78645998
0.059725001 0.029079 0.78691
0.060506001 0.029061999 0.78645998
0.061287001 0.029046001 0.78601998
0.062137999 0.029061999 0.78645998
0.062953003 0.029061999 0.78645998
0.063768998 0.029061999 0.78645998
0.064511001 0.029029001 0.78557003
0.065288998 0.029013 0.78513002
0.066102996 0.029013 0.78513002
0.066917002 0.029013 0.78513002
0.067654997 0.02898 0.78424001
0.068467997 0.02898 0.78424001
0.069242001 0.028964 0.78380001
0.070014998 0.028946999 0.78336
0.070788004 0.028930999 0.78292
0.071519002 0.028898999 0.78204
0.072288997 0.028882001 0.7816
0.073059 0.028866 0.78116
0.073826998 0.02885 0.78072
0.074510999 0.028801 0.77941
0.075277001 0.028785 0.77897
0.076041996 0.028769 0.77853
0.076720998 0.028720999 0.77723002
0.077482998 0.028705001 0.77679002
0.078244999 0.028689001 0.77635998
0.079006001 0.028673001 0.77591997
0.079765998 0.028657001 0.77548999
0.080480002 0.028625 0.77463001
0.081238002 0.028609 0.77419001
0.081996001 0.028593 0.77376002
0.082659997 0.028545 0.77247
0.083415002 0.028529 0.77204001
0.084074996 0.028481999 0.77076
0.08478 0.028449999 0.76990998
0.085530996 0.028434999 0.76947999
0.086234003 0.028403001 0.76863003
0.086934 0.028372001 0.76778001
0.087633997 0.028340001 0.76692998
0.088331997 0.028309001 0.76608998
0.088978998 0.028262001 0.76481998
0.089624003 0.028216001 0.76356
0.023088999 0.028976001 0.76271999
0.023959 0.029072 0.76524001
0.02478 0.029104 0.76608998
0.025615999 0.029152 0.76735002
0.026471 0.029216001 0.76905
0.027313 0.029265 0.77033001
0.028175 0.02933 0.77204001
0.029023999 0.029379001 0.77332997
0.029859001 0.029412 0.77419001
0.030712999 0.029461 0.77548999
0.031552002 0.029494001 0.77635998
0.032375 0.029510001 0.77679002
0.033255 0.029576 0.77853
0.034100998 0.029610001 0.77941
0.034908999 0.029610001 0.77941
0.035716999 0.029610001 0.77941
0.036545999 0.029626001 0.77983999
0.037418 0.029676 0.78116
0.038249001 0.029693 0.7816
0.039081998 0.02971 0.78204
0.039891999 0.02971 0.78204
0.040748999 0.029743001 0.78292
0.041584998 0.029759999 0.78336
0.042420998 0.029777 0.78380001
0.043209001 0.029759999 0.78336
0.044046 0.029777 0.78380001
0.044909999 0.02981 0.78469002
0.045749001 0.029827001 0.78513002
0.046537001 0.02981 0.78469002
0.047378 0.029827001 0.78513002
0.048191998 0.029827001 0.78513002
0.049089 0.029878 0.78645998
0.049904998 0.029878 0.78645998
0.050719999 0.029878 0.78645998
0.051564999 0.029895 0.78691
0.052411001 0.029912001 0.78735
0.053227 0.029912001 0.78735
0.054042999 0.029912001 0.78735
0.05486 0.029912001 0.78735
0.055707999 0.029928001 0.78780001
0.056492999 0.029912001 0.78735
0.057277001 0.029895 0.78691
0.058093 0.029895 0.78691
0.058942001 0.029912001 0.78735
0.059758998 0.029912001 0.78735
0.060541 0.029895 0.78691
0.061356999 0.029895 0.78691
0.062208001 0.029912001 0.78735
0.063023999 0.029912001 0.78735
0.063804999 0.029895 0.78691
0.064548001 0.029860999 0.78601998
0.065362997 0.029860999 0.78601998
0.066140004 0.029843999 0.78557003
0.066955 0.029843999 0.78557003
0.067693003 0.02981 0.78469002
0.068507001 0.02981 0.78469002
0.069280997 0.029793 0.78424001
0.070055 0.029777 0.78380001
0.070827998 0.029759999 0.78336
0.071558997 0.029726001 0.78248
0.072329998 0.02971 0.78204
0.073100001 0.029693 0.7816
0.073868997 0.029676 0.78116
0.074594997 0.029642999 0.78027999
0.075361997 0.029626001 0.77983999
0.076127999 0.029610001 0.77941
0.076764002 0.029542999 0.77766001
0.077527002 0.029526999 0.77723002
0.078289002 0.029510001 0.77679002
0.079049997 0.029494001 0.77635998
0.079810999 0.029477 0.77591997
0.080525003 0.029444 0.77506
0.081284001 0.029428 0.77463001
0.081996001 0.029394999 0.77376002
0.082705997 0.029363001 0.77289999
0.083461002 0.029346 0.77247
0.084122002 0.029297 0.77118999
0.084826998 0.029265 0.77033001
0.085530996 0.029231999 0.76947999
0.086234003 0.029200001 0.76863003
0.086934 0.029168 0.76778001
0.087633997 0.029136 0.76692998
0.088283002 0.029088 0.76565999
0.088930003 0.029039999 0.76440001
0.089575 0.028991999 0.76314002
0.023088999 0.029766999 0.76271999
0.023972001 0.029881001 0.76565999
0.024793001 0.029913999 0.76651001
0.025630999 0.029964 0.76778001
0.026485 0.030029999 0.76947999
0.027329 0.03008 0.77076
0.02819 0.030146999 0.77247
0.029039999 0.030198 0.77376002
0.029891999 0.030247999 0.77506
0.03073 0.030282 0.77591997
0.031587999 0.030332999 0.77723002
0.032412 0.03035 0.77766001
0.033293001 0.030417999 0.77941
0.034120001 0.030435 0.77983999
0.034929 0.030435 0.77983999
0.035757001 0.030452 0.78027999
0.036587 0.030469 0.78072
0.037439 0.030502999 0.7816
0.038270999 0.03052 0.78204
0.039104 0.030538 0.78248
0.039914999 0.030538 0.78248
0.040771998 0.030572001 0.78336
0.041607998 0.030588999 0.78380001
0.042445 0.030607 0.78424001
0.043234002 0.030588999 0.78380001
0.044071 0.030607 0.78424001
0.044961002 0.030658999 0.78557003
0.045775 0.030658999 0.78557003
0.046562999 0.030641001 0.78513002
0.047403999 0.030658999 0.78557003
0.048246 0.030676 0.78601998
0.049144998 0.030727999 0.78735
0.049933001 0.030711001 0.78691
0.050749 0.030711001 0.78691
0.051623002 0.030745 0.78780001
0.052439999 0.030745 0.78780001
0.053257 0.030745 0.78780001
0.054074001 0.030745 0.78780001
0.054891001 0.030745 0.78780001
0.055739 0.030763 0.78825003
0.056524999 0.030745 0.78780001
0.057342 0.030745 0.78780001
0.058125999 0.030727999 0.78735
0.058975998 0.030745 0.78780001
0.059792001 0.030745 0.78780001
0.060609002 0.030745 0.78780001
0.061391 0.030727999 0.78735
0.062243 0.030745 0.78780001
0.063060001 0.030745 0.78780001
0.063841 0.030727999 0.78735
0.064621001 0.030711001 0.78691
0.065399997 0.030693 0.78645998
0.066215001 0.030693 0.78645998
0.067031004 0.030693 0.78645998
0.067731 0.030641001 0.78513002
0.068544999 0.030641001 0.78513002
0.069360003 0.030641001 0.78513002
0.070093997 0.030607 0.78424001
0.070868 0.030588999 0.78380001
0.07164 0.030572001 0.78336
0.072370999 0.030538 0.78248
0.073141001 0.03052 0.78204
0.073909998 0.030502999 0.7816
0.074637003 0.030469 0.78072
0.075404003 0.030452 0.78027999
0.076169997 0.030435 0.77983999
0.076849997 0.030384 0.77853
0.077569999 0.03035 0.77766001
0.078332998 0.030332999 0.77723002
0.079094 0.030316001 0.77679002
0.079855002 0.030299 0.77635998
0.080569997 0.030265 0.77548999
0.081329003 0.030247999 0.77506
0.082087003 0.030231001 0.77463001
0.082751997 0.030181 0.77332997
0.083507001 0.030164 0.77289999
0.084168002 0.030114001 0.77161998
0.084873997 0.03008 0.77076
0.085579 0.030046999 0.76990998
0.086234003 0.029997 0.76863003
0.086934 0.029964 0.76778001
0.087633997 0.029931 0.76692998
0.088283002 0.029881001 0.76565999
0.088930003 0.029832 0.76440001
0.089525998 0.029766999 0.76271999
0.023985 0.030692 0.76608998
0.024807001 0.030726001 0.76692998
0.025645001 0.030777 0.76819998
0.0265 0.030844999 0.76990998
0.027344 0.030897001 0.77118999
0.028206 0.030965 0.77289999
0.029056 0.031017 0.77419001
0.029909 0.031068999 0.77548999
0.030747 0.031104 0.77635998
0.031605002 0.031156 0.77766001
0.032430001 0.031174 0.77810001
0.033330001 0.031261001 0.78027999
0.034157999 0.031279001 0.78072
0.034968 0.031279001 0.78072
0.035776999 0.031279001 0.78072
0.036607999 0.031296 0.78116
0.037459999 0.031330999 0.78204
0.038291998 0.031349 0.78248
0.039126001 0.031367 0.78292
0.039937001 0.031367 0.78292
0.040794998 0.031401999 0.78380001
0.041632 0.03142 0.78424001
0.042468999 0.031438001 0.78469002
0.043258 0.03142 0.78424001
0.044096 0.031438001 0.78469002
0.044985998 0.031491 0.78601998
0.045827001 0.031509001 0.78645998
0.046615999 0.031491 0.78601998
0.047458 0.031509001 0.78645998
0.048301 0.031527001 0.78691
0.049173001 0.031562001 0.78780001
0.049989 0.031562001 0.78780001
0.050806001 0.031562001 0.78780001
0.051653001 0.031580001 0.78825003
0.052469999 0.031580001 0.78825003
0.053286999 0.031580001 0.78825003
0.054104999 0.031580001 0.78825003
0.054922 0.031580001 0.78825003
0.055771001 0.031598002 0.78868997
0.056557 0.031580001 0.78825003
0.057342 0.031562001 0.78780001
0.058159001 0.031562001 0.78780001
0.059009001 0.031580001 0.78825003
0.059826002 0.031580001 0.78825003
0.060644001 0.031580001 0.78825003
0.061425999 0.031562001 0.78780001
0.062279001 0.031580001 0.78825003
0.063096002 0.031580001 0.78825003
0.063877001 0.031562001 0.78780001
0.064657003 0.031544 0.78735
0.065474004 0.031544 0.78735
0.066252999 0.031527001 0.78691
0.067069001 0.031527001 0.78691
0.067808002 0.031491 0.78601998
0.068622999 0.031491 0.78601998
0.069398999 0.031473 0.78557003
0.070174001 0.031454999 0.78513002
0.070908003 0.03142 0.78424001
0.07164 0.031383999 0.78336
0.072411999 0.031367 0.78292
0.073223002 0.031367 0.78292
0.073951997 0.031330999 0.78204
0.074679002 0.031296 0.78116
0.075446002 0.031279001 0.78072
0.076256 0.031279001 0.78072
0.076893002 0.031207999 0.77897
0.077614002 0.031174 0.77810001
0.078377001 0.031156 0.77766001
0.079182997 0.031156 0.77766001
0.079899997 0.031121001 0.77679002
0.080614999 0.031087 0.77591997
0.081373997 0.031068999 0.77548999
0.082087003 0.031035 0.77463001
0.082843997 0.031017 0.77419001
0.083554 0.030982999 0.77332997
0.084215 0.030931 0.77204001
0.084968001 0.030913999 0.77161998
0.085579 0.030844999 0.76990998
0.086281002 0.030811001 0.76905
0.086981997 0.030777 0.76819998
0.087633997 0.030726001 0.76692998
0.088331997 0.030692 0.76608998
0.088930003 0.030625001 0.76440001
0.089525998 0.030557999 0.76271999
0.023998 0.031504001 0.76651001
0.024821 0.031539001 0.76735002
0.025645001 0.031574 0.76819998
0.0265 0.031644002 0.76990998
0.027358999 0.031714 0.77161998
0.028222 0.031785 0.77332997
0.029072 0.031838 0.77463001
0.029925 0.031891 0.77591997
0.030764 0.031927001 0.77679002
0.031640999 0.031998001 0.77853
0.032466002 0.032016002 0.77897
0.033349 0.032088 0.78072
0.034177002 0.032106001 0.78116
0.034986999 0.032106001 0.78116
0.035797 0.032106001 0.78116
0.036628 0.032124002 0.7816
0.037480999 0.032159999 0.78248
0.038314 0.032179002 0.78292
0.039147999 0.032196999 0.78336
0.039960001 0.032196999 0.78336
0.040817998 0.032233 0.78424001
0.041655 0.032251 0.78469002
0.042493001 0.032269001 0.78513002
0.043306999 0.032269001 0.78513002
0.044146001 0.032288 0.78557003
0.045037001 0.032343 0.78691
0.045878999 0.032361001 0.78735
0.046668999 0.032343 0.78691
0.047485001 0.032343 0.78691
0.048328001 0.032361001 0.78735
0.049199998 0.032398 0.78825003
0.050018001 0.032398 0.78825003
0.050834998 0.032398 0.78825003
0.051681999 0.032416001 0.78868997
0.052499998 0.032416001 0.78868997
0.053318001 0.032416001 0.78868997
0.054134998 0.032416001 0.78868997
0.054953001 0.032416001 0.78868997
0.055771001 0.032416001 0.78868997
0.056589 0.032416001 0.78868997
0.057374001 0.032398 0.78825003
0.058192 0.032398 0.78825003
0.059041999 0.032416001 0.78868997
0.059859999 0.032416001 0.78868997
0.060678001 0.032416001 0.78868997
0.061461002 0.032398 0.78825003
0.062314 0.032416001 0.78868997
0.063132003 0.032416001 0.78868997
0.063913003 0.032398 0.78825003
0.064694002 0.032379001 0.78780001
0.065511003 0.032379001 0.78780001
0.066289999 0.032361001 0.78735
0.067106999 0.032361001 0.78735
0.067846 0.032324001 0.78645998
0.068662003 0.032324001 0.78645998
0.069476999 0.032324001 0.78645998
0.070212997 0.032288 0.78557003
0.070947997 0.032251 0.78469002
0.071680002 0.032214999 0.78380001
0.072452001 0.032196999 0.78336
0.073223002 0.032179002 0.78292
0.073951997 0.032141998 0.78204
0.074721001 0.032124002 0.7816
0.075488999 0.032106001 0.78116
0.076298997 0.032106001 0.78116
0.076978996 0.032051999 0.77983999
0.077701002 0.032016002 0.77897
0.078419998 0.03198 0.77810001
0.079227 0.03198 0.77810001
0.079989001 0.031962 0.77766001
0.08066 0.031909 0.77635998
0.081419997 0.031891 0.77591997
0.082133003 0.031856 0.77506
0.082843997 0.031819999 0.77419001
0.0836 0.031801999 0.77376002
0.084308997 0.031767 0.77289999
0.085015997 0.031732 0.77204001
0.085625999 0.031661 0.77033001
0.086328998 0.031626001 0.76947999
0.087030999 0.031590998 0.76863003
0.087682001 0.031539001 0.76735002
0.088331997 0.031486999 0.76608998
0.088978998 0.031435002 0.76481998
0.089475997 0.031330999 0.76230001
0.090069003 0.031263001 0.76063001
0.024025001 0.032334998 0.76735002
0.024847999 0.032370001 0.76819998
0.025673 0.032405999 0.76905
0.026515 0.03246 0.77033001
0.027373999 0.032531999 0.77204001
0.028237 0.032605 0.77376002
0.029088 0.032659002 0.77506
0.029942 0.032714002 0.77635998
0.030781999 0.032751001 0.77723002
0.031658001 0.032823998 0.77897
0.032483999 0.032841999 0.77941
0.033367001 0.032915998 0.78116
0.034196999 0.032935001 0.7816
0.035007 0.032935001 0.7816
0.035817999 0.032935001 0.7816
0.036649 0.032953002 0.78204
0.037501998 0.032990001 0.78292
0.038334999 0.033009 0.78336
0.039170001 0.033027999 0.78380001
0.039981999 0.033027999 0.78380001
0.040840998 0.033064999 0.78469002
0.041678999 0.033084001 0.78513002
0.042516999 0.033101998 0.78557003
0.043356001 0.033121001 0.78601998
0.044195998 0.03314 0.78645998
0.045088001 0.033195999 0.78780001
0.045905001 0.033195999 0.78780001
0.046695001 0.033177 0.78735
0.047538999 0.033195999 0.78780001
0.048383001 0.033215001 0.78825003
0.049228001 0.033234 0.78868997
0.050046001 0.033234 0.78868997
0.050864 0.033234 0.78868997
0.051711001 0.033252999 0.78913999
0.052530002 0.033252999 0.78913999
0.053348001 0.033252999 0.78913999
0.054166 0.033252999 0.78913999
0.055016 0.033271998 0.78959
0.055833999 0.033271998 0.78959
0.056621 0.033252999 0.78913999
0.057438999 0.033252999 0.78913999
0.058258001 0.033252999 0.78913999
0.059076 0.033252999 0.78913999
0.059893999 0.033252999 0.78913999
0.060713001 0.033252999 0.78913999
0.061496001 0.033234 0.78868997
0.062348999 0.033252999 0.78913999
0.063167997 0.033252999 0.78913999
0.063950002 0.033234 0.78868997
0.064731002 0.033215001 0.78825003
0.065548003 0.033215001 0.78825003
0.066365004 0.033215001 0.78825003
0.067144997 0.033195999 0.78780001
0.067923002 0.033177 0.78735
0.068700999 0.033158999 0.78691
0.069517002 0.033158999 0.78691
0.070293002 0.03314 0.78645998
0.070987999 0.033084001 0.78513002
0.071721002 0.033046 0.78424001
0.072493002 0.033027999 0.78380001
0.073265001 0.033009 0.78336
0.073994003 0.032972001 0.78248
0.074763 0.032953002 0.78204
0.075530998 0.032935001 0.7816
0.076342002 0.032935001 0.7816
0.077022001 0.032878999 0.78027999
0.077744 0.032841999 0.77941
0.078507997 0.032823998 0.77897
0.079272002 0.032806002 0.77853
0.080034003 0.032786999 0.77810001
0.080751002 0.032751001 0.77723002
0.081419997 0.032696001 0.77591997
0.082179002 0.032676999 0.77548999
0.082889996 0.032641001 0.77463001
0.083646998 0.032623 0.77419001
0.084308997 0.032568 0.77289999
0.085063003 0.03255 0.77247
0.085672997 0.032478001 0.77076
0.086377002 0.032442 0.76990998
0.087079003 0.032405999 0.76905
0.087730996 0.032352 0.76778001
0.088380001 0.032299001 0.76651001
0.089028001 0.032246001 0.76524001
0.089525998 0.032139 0.76271999
0.090069003 0.032051001 0.76063001
0.024876 0.033204 0.76905
0.025715999 0.033259001 0.77033001
0.026559001 0.033314001 0.77161998
0.027404999 0.033369999 0.77289999
0.028269 0.033443999 0.77463001
0.029121 0.033500001 0.77591997
0.029959001 0.033537999 0.77679002
0.030816 0.033594001 0.77810001
0.031676002 0.033651002 0.77941
0.032503001 0.033670001 0.77983999
0.033386 0.033744998 0.7816
0.034216002 0.033764001 0.78204
0.035027001 0.033764001 0.78204
0.035838 0.033764001 0.78204
0.036669001 0.033783 0.78248
0.037523001 0.033821002 0.78336
0.038357001 0.033840001 0.78380001
0.039191999 0.033860002 0.78424001
0.040027998 0.033879001 0.78469002
0.040863998 0.033898 0.78513002
0.041701999 0.033916999 0.78557003
0.042564999 0.033955 0.78645998
0.04338 0.033955 0.78645998
0.044245999 0.033994 0.78735
0.045139 0.034051999 0.78868997
0.045956999 0.034051999 0.78868997
0.046748001 0.034031998 0.78825003
0.047593001 0.034051999 0.78868997
0.048438001 0.034070998 0.78913999
0.049284 0.034090001 0.78959
0.050074998 0.034070998 0.78913999
0.050921999 0.034090001 0.78959
0.051770002 0.034109998 0.79004002
0.052588999 0.034109998 0.79004002
0.053408999 0.034109998 0.79004002
0.054228 0.034109998 0.79004002
0.055047002 0.034109998 0.79004002
0.055865999 0.034109998 0.79004002
0.056685001 0.034109998 0.79004002
0.057505 0.034109998 0.79004002
0.058290999 0.034090001 0.78959
0.059110001 0.034090001 0.78959
0.059962001 0.034109998 0.79004002
0.060747001 0.034090001 0.78959
0.061531 0.034070998 0.78913999
0.062385 0.034090001 0.78959
0.063203 0.034090001 0.78959
0.063986003 0.034070998 0.78913999
0.064767003 0.034051999 0.78868997
0.065585002 0.034051999 0.78868997
0.066403002 0.034051999 0.78868997
0.067183003 0.034031998 0.78825003
0.067961998 0.034012999 0.78780001
0.068740003 0.033994 0.78735
0.069555998 0.033994 0.78735
0.070332997 0.033975001 0.78691
0.071107998 0.033955 0.78645998
0.071801998 0.033898 0.78513002
0.072575003 0.033879001 0.78469002
0.073347002 0.033860002 0.78424001
0.074034996 0.033801999 0.78292
0.074804999 0.033783 0.78248
0.075574003 0.033764001 0.78204
0.076384999 0.033764001 0.78204
0.077109002 0.033725999 0.78116
0.077831 0.033688001 0.78027999
0.078596003 0.033670001 0.77983999
0.079360999 0.033651002 0.77941
0.080078997 0.033613 0.77853
0.080796003 0.033574998 0.77766001
0.081510998 0.033537999 0.77679002
0.082223997 0.033500001 0.77591997
0.082983002 0.033482 0.77548999
0.083692998 0.033443999 0.77463001
0.084403001 0.033406999 0.77376002
0.085110001 0.033369999 0.77289999
0.085721001 0.033296 0.77118999
0.086424999 0.033259001 0.77033001
0.087127 0.033222001 0.76947999
0.087730996 0.033149 0.76778001
0.088428997 0.033112001 0.76692998
0.089077003 0.033057 0.76565999
0.089525998 0.032930002 0.76271999
0.090020001 0.032822002 0.76021999
0.090659998 0.032768 0.75897002
0.091347001 0.032733001 0.75814003
0.092083 0.032715 0.75773001
0.092767 0.032678999 0.75691003
0.024902999 0.034038998 0.76990998
0.025744 0.034095999 0.77118999
0.026573 0.034132998 0.77204001
0.027404999 0.034171 0.77289999
0.028285 0.034267001 0.77506
0.029137 0.034324002 0.77635998
0.029975999 0.034361999 0.77723002
0.030833 0.034419999 0.77853
0.031693999 0.034478001 0.77983999
0.032520998 0.034497999 0.78027999
0.033404998 0.034575 0.78204
0.034235001 0.034595001 0.78248
0.035046998 0.034595001 0.78248
0.035858002 0.034595001 0.78248
0.03669 0.034614 0.78292
0.037544001 0.034653001 0.78380001
0.038378999 0.034673002 0.78424001
0.039236002 0.034712002 0.78513002
0.04005 0.034712002 0.78513002
0.040886998 0.034731999 0.78557003
0.041749001 0.034770999 0.78645998
0.042613 0.034809999 0.78735
0.043430001 0.034809999 0.78735
0.044296 0.034850001 0.78825003
0.045164999 0.034889001 0.78913999
0.045983002 0.034889001 0.78913999
0.046774998 0.034869999 0.78868997
0.047619998 0.034889001 0.78913999
0.048466001 0.034908999 0.78959
0.049311999 0.034929 0.79004002
0.050131999 0.034929 0.79004002
0.050951 0.034929 0.79004002
0.051798999 0.034949001 0.79048997
0.052618999 0.034949001 0.79048997
0.053438999 0.034949001 0.79048997
0.054258998 0.034949001 0.79048997
0.055078 0.034949001 0.79048997
0.055898 0.034949001 0.79048997
0.056717999 0.034949001 0.79048997
0.057537001 0.034949001 0.79048997
0.058324002 0.034929 0.79004002
0.059142999 0.034929 0.79004002
0.059962001 0.034929 0.79004002
0.060782 0.034929 0.79004002
0.061565999 0.034908999 0.78959
0.062419999 0.034929 0.79004002
0.063239001 0.034929 0.79004002
0.064021997 0.034908999 0.78959
0.064804003 0.034889001 0.78913999
0.065622002 0.034889001 0.78913999
0.066441 0.034889001 0.78913999
0.067221001 0.034869999 0.78868997
0.068000004 0.034850001 0.78825003
0.068778999 0.03483 0.78780001
0.069595002 0.03483 0.78780001
0.070412003 0.03483 0.78780001
0.071148999 0.034791 0.78691
0.071883 0.034751002 0.78601998
0.072656997 0.034731999 0.78557003
0.073389001 0.034692001 0.78469002
0.074119002 0.034653001 0.78380001
0.074846998 0.034614 0.78292
0.075658999 0.034614 0.78292
0.076428004 0.034595001 0.78248
0.077196002 0.034575 0.78204
0.077918999 0.034536 0.78116
0.078640997 0.034497999 0.78027999
0.079449996 0.034497999 0.78027999
0.080169 0.034458999 0.77941
0.080885999 0.034419999 0.77853
0.081556 0.034361999 0.77723002
0.082269996 0.034324002 0.77635998
0.083029002 0.034304999 0.77591997
0.083740003 0.034267001 0.77506
0.084449999 0.034228001 0.77419001
0.085157998 0.034189999 0.77332997
0.085768998 0.034113999 0.77161998
0.086473003 0.034077 0.77076
0.087174997 0.034038998 0.76990998
0.087828003 0.033982001 0.76863003
0.088477999 0.033925999 0.76735002
0.089077003 0.033851001 0.76565999
0.089525998 0.033721 0.76271999
0.090069003 0.033629 0.76063001
0.091347001 0.033519 0.75814003
0.092083 0.033500999 0.75773001
0.092767 0.033464 0.75691003
0.024917001 0.034857001 0.77033001
0.025759 0.034915 0.77161998
0.026588 0.034952998 0.77247
0.027419999 0.034991998 0.77332997
0.028316 0.035110001 0.77591997
0.029153001 0.035149001 0.77679002
0.030009 0.035208002 0.77810001
0.030867999 0.035266999 0.77941
0.031711999 0.035307001 0.78027999
0.032556999 0.035346001 0.78116
0.033424001 0.035406001 0.78248
0.034254 0.035425998 0.78292
0.035066001 0.035425998 0.78292
0.035877999 0.035425998 0.78292
0.036711 0.035445999 0.78336
0.037565 0.035486002 0.78424001
0.038422 0.035526 0.78513002
0.039258 0.035546001 0.78557003
0.040096 0.035565998 0.78601998
0.040934 0.035585999 0.78645998
0.041797001 0.035627 0.78735
0.042661 0.035666998 0.78825003
0.043478999 0.035666998 0.78825003
0.044346001 0.035707999 0.78913999
0.045189999 0.035728 0.78959
0.046009 0.035728 0.78959
0.046828002 0.035728 0.78959
0.047646999 0.035728 0.78959
0.048493002 0.035748001 0.79004002
0.049339999 0.035769001 0.79048997
0.050159998 0.035769001 0.79048997
0.050980002 0.035769001 0.79048997
0.051828999 0.035789002 0.79093999
0.052648999 0.035789002 0.79093999
0.053468999 0.035789002 0.79093999
0.054258998 0.035769001 0.79048997
0.05511 0.035789002 0.79093999
0.05593 0.035789002 0.79093999
0.05675 0.035789002 0.79093999
0.057569999 0.035789002 0.79093999
0.058389999 0.035789002 0.79093999
0.059177 0.035769001 0.79048997
0.059997 0.035769001 0.79048997
0.060816001 0.035769001 0.79048997
0.061601002 0.035748001 0.79004002
0.062456001 0.035769001 0.79048997
0.063275002 0.035769001 0.79048997
0.064058997 0.035748001 0.79004002
0.064841002 0.035728 0.78959
0.06566 0.035728 0.78959
0.066478997 0.035728 0.78959
0.067258999 0.035707999 0.78913999
0.068039 0.035687 0.78868997
0.068818003 0.035666998 0.78825003
0.069634996 0.035666998 0.78825003
0.070412003 0.035647001 0.78780001
0.071189001 0.035627 0.78735
0.071924001 0.035585999 0.78645998
0.072738998 0.035585999 0.78645998
0.073430002 0.035526 0.78513002
0.074161001 0.035486002 0.78424001
0.074888997 0.035445999 0.78336
0.075701997 0.035445999 0.78336
0.076471001 0.035425998 0.78292
0.077238999 0.035406001 0.78248
0.077963002 0.035365999 0.7816
0.078685001 0.035326 0.78072
0.079493999 0.035326 0.78072
0.080214001 0.035287 0.77983999
0.080977 0.035266999 0.77941
0.081602 0.035188001 0.77766001
0.082315996 0.035149001 0.77679002
0.083075002 0.035129 0.77635998
0.083787002 0.035089999 0.77548999
0.084449999 0.035030998 0.77419001
0.085157998 0.034991998 0.77332997
0.085816003 0.034933999 0.77204001
0.086521 0.034894999 0.77118999
0.087223999 0.034857001 0.77033001
0.087828003 0.034779001 0.76863003
0.088527001 0.034740999 0.76778001
0.089175001 0.034683 0.76651001
0.089575 0.034531001 0.76314002
0.091397002 0.034324002 0.75856
0.092083 0.034286 0.75773001
0.092767 0.034249 0.75691003
0.024931001 0.035675 0.77076
0.025787 0.035753999 0.77247
0.026618 0.035794001 0.77332997
0.027450001 0.035834 0.77419001
0.028348001 0.035953999 0.77679002
0.029201999 0.036015 0.77810001
0.030060001 0.036075 0.77941
0.030903 0.036116 0.78027999
0.03173 0.036136001 0.78072
0.032575998 0.036176998 0.7816
0.033443 0.036238 0.78292
0.034274001 0.036258001 0.78336
0.035085998 0.036258001 0.78336
0.035898 0.036258001 0.78336
0.036752 0.036299001 0.78424001
0.037608001 0.036339998 0.78513002
0.038465001 0.036380999 0.78601998
0.039303001 0.036401998 0.78645998
0.040141001 0.036423001 0.78691
0.04098 0.036442999 0.78735
0.041843999 0.036485001 0.78825003
0.042686 0.036504999 0.78868997
0.043503001 0.036504999 0.78868997
0.044372 0.036547001 0.78959
0.045216002 0.036566999 0.79004002
0.046034999 0.036566999 0.79004002
0.046854999 0.036566999 0.79004002
0.047701001 0.036587998 0.79048997
0.048521001 0.036587998 0.79048997
0.049368002 0.036609001 0.79093999
0.050189 0.036609001 0.79093999
0.051008999 0.036609001 0.79093999
0.051858 0.036630001 0.79139
0.052678999 0.036630001 0.79139
0.0535 0.036630001 0.79139
0.054288998 0.036609001 0.79093999
0.05511 0.036609001 0.79093999
0.055962 0.036630001 0.79139
0.056782 0.036630001 0.79139
0.057603002 0.036630001 0.79139
0.058424 0.036630001 0.79139
0.059211001 0.036609001 0.79093999
0.060031001 0.036609001 0.79093999
0.060851 0.036609001 0.79093999
0.061636001 0.036587998 0.79048997
0.062491 0.036609001 0.79093999
0.063311003 0.036609001 0.79093999
0.064058997 0.036566999 0.79004002
0.064841002 0.036547001 0.78959
0.06566 0.036547001 0.78959
0.066478997 0.036547001 0.78959
0.067258999 0.036525998 0.78913999
0.068039 0.036504999 0.78868997
0.068818003 0.036485001 0.78825003
0.069674 0.036504999 0.78868997
0.070451997 0.036485001 0.78825003
0.071229003 0.036463998 0.78780001
0.071965002 0.036423001 0.78691
0.072738998 0.036401998 0.78645998
0.073472001 0.036361001 0.78557003
0.074161001 0.036299001 0.78424001
0.074932002 0.036279 0.78380001
0.075744003 0.036279 0.78380001
0.076513998 0.036258001 0.78336
0.077283002 0.036238 0.78292
0.078006998 0.036196999 0.78204
0.078772999 0.036176998 0.7816
0.079539001 0.036155999 0.78116
0.080303997 0.036136001 0.78072
0.081022002 0.036095999 0.77983999
0.081648 0.036015 0.77810001
0.082362004 0.035974 0.77723002
0.083122 0.035953999 0.77679002
0.083834 0.035914 0.77591997
0.084496997 0.035854001 0.77463001
0.085205004 0.035813998 0.77376002
0.085864 0.035753999 0.77247
0.086568996 0.035714999 0.77161998
0.087272003 0.035675 0.77076
0.087876 0.035595998 0.76905
0.088575996 0.035557002 0.76819998
0.089175001 0.035478 0.76651001
0.091496997 0.035149001 0.75939
0.092133 0.035091002 0.75814003
0.092767 0.035034001 0.75691003
0.093349002 0.034958001 0.75525999
0.024157999 0.036515001 0.77161998
0.024945 0.036495 0.77118999
0.025815999 0.036596 0.77332997
0.026633 0.036616001 0.77376002
0.027465999 0.036657002 0.77463001
0.028364001 0.03678 0.77723002
0.029219 0.036842 0.77853
0.030060001 0.036883 0.77941
0.030920001 0.036945999 0.78072
0.031746998 0.036966 0.78116
0.032593999 0.037007999 0.78204
0.033443 0.037050001 0.78292
0.034293 0.037090998 0.78380001
0.035106 0.037090998 0.78380001
0.035939001 0.037112001 0.78424001
0.036773 0.037133001 0.78469002
0.03765 0.037195999 0.78601998
0.038486999 0.037216999 0.78645998
0.039347 0.03726 0.78735
0.040185999 0.037280999 0.78780001
0.041026998 0.037301999 0.78825003
0.041892 0.037344001 0.78913999
0.042734001 0.037365001 0.78959
0.043552998 0.037365001 0.78959
0.044397 0.037386999 0.79004002
0.045242 0.037408002 0.79048997
0.046062 0.037408002 0.79048997
0.046907999 0.037429001 0.79093999
0.047727998 0.037429001 0.79093999
0.048576001 0.037450999 0.79139
0.049424998 0.037471998 0.79184002
0.050216999 0.037450999 0.79139
0.051038001 0.037450999 0.79139
0.051918 0.037493002 0.79228997
0.052739002 0.037493002 0.79228997
0.05353 0.037471998 0.79184002
0.054350998 0.037471998 0.79184002
0.055172 0.037471998 0.79184002
0.056024998 0.037493002 0.79228997
0.056846999 0.037493002 0.79228997
0.057636 0.037471998 0.79184002
0.058456998 0.037471998 0.79184002
0.059243999 0.037450999 0.79139
0.060065001 0.037450999 0.79139
0.060885999 0.037450999 0.79139
0.061671 0.037429001 0.79093999
0.062527001 0.037450999 0.79139
0.063346997 0.037450999 0.79139
0.064094998 0.037408002 0.79048997
0.064878002 0.037386999 0.79004002
0.065696999 0.037386999 0.79004002
0.066515997 0.037386999 0.79004002
0.067296997 0.037365001 0.78959
0.068076998 0.037344001 0.78913999
0.068856999 0.037323002 0.78868997
0.069674 0.037323002 0.78868997
0.070491999 0.037323002 0.78868997
0.071229003 0.037280999 0.78780001
0.072005004 0.03726 0.78735
0.072780997 0.037239 0.78691
0.073513001 0.037195999 0.78601998
0.074202001 0.037133001 0.78469002
0.074974 0.037112001 0.78424001
0.075787 0.037112001 0.78424001
0.076557003 0.037090998 0.78380001
0.077326 0.037071001 0.78336
0.078051001 0.037029002 0.78248
0.078818001 0.037007999 0.78204
0.079584002 0.036986999 0.7816
0.080348998 0.036966 0.78116
0.081068002 0.036924999 0.78027999
0.081739001 0.036862999 0.77897
0.082409002 0.036800999 0.77766001
0.083122 0.036759999 0.77679002
0.083880998 0.036738999 0.77635998
0.084544003 0.036678001 0.77506
0.085205004 0.036616001 0.77376002
0.085864 0.036555 0.77247
0.086617 0.036534999 0.77204001
0.08732 0.036495 0.77118999
0.087876 0.036394 0.76905
0.088575996 0.036353 0.76819998
0.089224003 0.036293 0.76692998
0.092817999 0.035838 0.75731999
0.093349002 0.035741001 0.75525999
0.024185 0.037356 0.77247
0.024958 0.037315 0.77161998
0.025815999 0.037397999 0.77332997
0.026648 0.037439998 0.77419001
0.027496001 0.037501998 0.77548999
0.028395999 0.037627999 0.77810001
